  -8.078060       3.939933     -0.4710245    
  -8.394373       2.407046       2.177296    
  -7.087777      0.2475086       5.540953    
  -3.261645      -1.661892       8.221909    
  -8.076736       2.315965      -3.225313    
  -8.982190      0.3136624     -0.4710245    
  -8.647676      -1.215354       2.177296    
  -6.142955      -3.129994       5.785088    
  -8.320454      -1.169366      -3.225313    
  -8.538657      -2.774380     -0.6278094    
  -7.336764      -4.584522       2.480736    
  -7.535449      -3.839506      -3.078182    
  -6.092232      -6.533122      -1.096825    
  -5.269757      -6.744987       2.781153    
  -3.191106      -5.756908       6.137985    
 -0.2553511      -3.651713       8.221909    
  -3.659166      -6.881897      -4.500000    
  -3.482354      -8.203920      -1.252559    
  -2.770473      -8.046050       2.930113    
  0.2259406      -6.470115       6.251925    
  -1.866304      -7.485352      -4.635345    
 -0.3110395      -8.906983      -1.252559    
  0.4453607      -8.498005       2.930113    
  0.2692314      -7.709805      -4.635345    
   3.490368      -8.222793      -1.096825    
   4.687568      -7.218222       2.631345    
   5.047727      -4.544994       5.904531    
   3.945341      0.0000000E+00   8.089147    
   4.287168      -6.601660      -4.363288    
   6.755177      -5.872186     -0.9407566    
   7.775786      -3.792505       2.480736    
  -6.800546      -4.249455      -4.085916    
   7.207482      -3.515324      -4.085916    
   8.603962      -2.467147     -0.9407566    
   8.651355      0.0000000E+00   2.480736    
   8.089146      0.0000000E+00  -3.945342    
   8.814715       1.554272     -0.9407566    
   8.129614       2.958938       2.480736    
   5.495156       3.992465       5.904531    
  0.5293534       3.766549       8.156770    
   7.535450       2.742680      -4.085916    
   7.241266       5.261087     -0.9407566    
   5.416399       6.688695       2.631345    
  0.9010141       6.411054       6.251925    
   4.953743       6.117364      -4.363288    
   4.330763       7.812904      -1.096825    
   1.331205       8.404900       2.930113    
  -6.142956       5.154550      -4.085916    
  0.6216978       8.890702      -1.252559    
  -1.633233       8.402246       2.781153    
  -2.358845       6.144998       6.137985    
  -3.115698       2.181634       8.156770    
 -0.8063857       7.672244      -4.635345    
  -2.306703       8.608729      -1.252559    
  -4.279755       7.412752       2.781153    
  -5.647563       3.954465       5.785088    
  -2.458345       6.754247      -5.416336    
  -5.123710       7.317416      -1.096825    
  -6.659481       5.587965       2.329370    
  -6.478618       5.436203      -3.078182    
  2.1910170E-02  0.3133304       8.994517    
  -6.835927      -2.221129      -5.416336    
  -6.460279       3.150889      -5.416336    
  -8.216900      0.2869381      -3.660630    
   1.073651       7.639428      -4.635345    

